# terrain04
179 185 191 197 202 208 213 218 222 226 230 234 237 240 242 244 246 247 248 248 248 247 246 244 242 240 237 234 231 227 223 218 213 208 203 198 192 186 180 174 168 162 155 149 143 137 130 124 118 113 107 101  96  91  86  81  77  73  69  65  61  58  55  52  50  48  46  44  43  41  40  40  39  39  38  38  39  39  39  40  41  41  42  43  44  45  46  48  49  50  51  52  53  54  55  56  57  58  59  60
192 198 205 211 217 223 228 233 238 243 247 251 254 257 260 262 263 265 265 266 265 265 264 262 260 257 254 251 247 243 239 234 229 224 218 212 206 200 193 187 180 174 167 160 153 147 140 134 127 121 115 109 103  98  92  87  83  78  74  70  66  62  59  56  53  51  49  47  45  44  43  42  41  40  40  40  40  40  41  41  42  43  43  44  45  46  48  49  50  51  52  53  55  56  57  58  59  60  61  61
205 212 219 226 232 238 244 249 255 259 264 268 272 275 277 280 281 283 283 284 283 283 281 280 278 275 272 268 264 260 255 250 245 239 233 227 220 214 207 200 193 186 178 171 164 157 150 143 136 130 123 117 111 105  99  94  88  83  79  74  70  66  63  60  57  54  52  50  48  46  45  44  43  42  42  41  41  42  42  42  43  43  44  45  46  47  48  49  51  52  53  54  55  56  58  59  60  61  62  62
219 226 233 240 247 253 260 266 271 276 281 285 289 292 295 298 299 301 302 302 302 301 299 298 295 293 289 285 281 277 272 266 260 254 248 241 234 227 220 213 205 198 190 183 175 167 160 152 145 138 131 124 118 112 105 100  94  89  84  79  75  71  67  63  60  57  54  52  50  48  47  45  44  44  43  43  42  42  43  43  43  44  45  46  47  48  49  50  51  52  53  54  56  57  58  59  60  61  62  63
232 240 247 255 262 269 275 282 287 293 298 302 306 310 313 315 317 319 320 320 320 319 317 316 313 310 307 303 298 293 288 282 276 270 263 256 249 241 234 226 218 210 202 194 186 178 170 162 154 147 139 132 125 118 112 106 100  94  89  84  79  75  70  67  63  60  57  54  52  50  48  47  46  45  44  44  43  43  43  43  44  44  45  46  47  48  49  50  51  52  53  54  56  57  58  59  60  61  62  63
245 253 262 269 277 284 291 297 304 309 314 319 324 327 330 333 335 337 338 338 338 337 335 333 331 327 324 320 315 310 304 298 292 285 278 270 263 255 247 239 230 222 213 205 196 188 179 171 163 155 147 140 132 125 118 112 105  99  94  88  83  78  74  70  66  63  60  57  54  52  50  48  47  46  45  44  44  44  44  44  44  44  45  46  46  47  48  49  50  52  53  54  55  56  58  59  60  61  62  63
258 267 275 284 291 299 306 313 320 325 331 336 340 344 348 350 353 354 355 355 355 354 353 351 348 345 341 336 331 326 320 314 307 300 292 285 277 268 260 251 242 233 225 216 207 198 189 180 172 163 155 147 139 132 124 117 111 104  98  93  87  82  77  73  69  65  62  59  56  54  51  50  48  47  46  45  44  44  44  44  44  44  45  45  46  47  48  49  50  51  52  53  55  56  57  58  59  61  62  63
271 280 289 297 306 314 321 328 335 341 347 352 357 361 365 367 370 371 372 373 372 371 370 368 365 361 357 353 347 342 336 329 322 314 307 298 290 281 272 263 254 245 236 226 217 207 198 189 180 171 163 154 146 138 130 123 116 109 103  97  91  86  81  76  72  68  64  61  58  55  53  51  49  48  46  45  45  44  44  44  44  44  44  45  45  46  47  48  49  50  51  53  54  55  56  57  59  60  61  62
283 293 302 311 320 328 336 343 350 357 363 368 373 377 381 384 386 388 389 389 389 388 386 384 381 377 373 368 363 357 351 344 336 329 320 312 303 294 285 275 266 256 246 236 227 217 207 198 188 179 170 161 153 144 136 129 121 114 107 101  95  89  84  79  75  70  66  63  60  57  54  52  50  48  47  46  45  44  44  43  43  44  44  44  45  46  46  47  48  49  51  52  53  54  55  57  58  59  60  62
295 305 314 324 333 341 349 357 365 371 377 383 388 393 396 400 402 404 405 405 405 404 402 400 397 393 388 383 378 372 365 358 350 342 334 325 316 306 297 287 277 267 256 246 236 226 216 206 196 186 177 168 159 150 142 134 126 119 112 105  99  93  87  82  77  73  69  65  61  58  55  53  51  49  47  46  45  44  44  43  43  43  43  44  44  45  46  47  47  49  50  51  52  53  55  56  57  59  60  61
306 316 326 336 345 354 363 371 378 385 392 397 403 407 411 414 417 419 420 420 420 419 417 415 411 407 403 398 392 386 379 371 363 355 346 337 327 318 308 297 287 277 266 256 245 234 224 214 203 193 184 174 165 156 147 139 131 123 116 109 102  96  90  85  80  75  71  67  63  60  57  54  52  50  48  47  45  44  44  43  43  43  43  43  44  44  45  46  47  48  49  50  51  53  54  55  57  58  59  61
317 327 337 347 357 366 375 383 391 398 405 411 416 421 425 428 431 433 434 434 434 433 431 429 425 421 417 411 405 399 391 384 376 367 358 348 339 328 318 308 297 286 275 264 253 242 232 221 210 200 190 180 171 161 152 144 135 127 120 112 106  99  93  87  82  77  73  69  65  61  58  55  53  51  49  47  46  45  44  43  43  43  43  43  43  44  44  45  46  47  48  49  51  52  53  55  56  57  59  60
326 337 348 358 368 377 386 395 403 410 417 423 429 434 438 441 444 446 447 447 447 446 444 441 438 434 429 423 417 411 403 395 387 378 369 359 349 338 328 317 306 295 284 272 261 250 239 228 217 206 196 186 176 166 157 148 139 131 123 116 109 102  96  90  85  80  75  70  66  63  59  57  54  52  49  48  46  45  44  43  43  43  43  43  43  43  44  45  46  47  48  49  50  51  53  54  56  57  59  60
335 346 357 367 377 387 396 405 413 421 428 434 440 445 449 453 456 458 459 459 459 458 456 453 450 445 440 435 428 421 414 406 397 388 378 368 358 347 337 325 314 303 291 280 268 257 245 234 223 212 201 191 181 171 161 152 143 135 127 119 112 105  99  93  87  82  77  72  68  64  61  58  55  53  50  49  47  46  45  44  43  43  43  43  43  43  44  45  46  47  48  49  50  51  53  54  56  57  59  60
343 354 365 376 386 396 405 414 423 431 438 444 450 455 460 463 466 468 469 470 469 468 466 463 460 455 450 445 438 431 423 415 406 397 387 377 366 355 344 333 321 310 298 286 274 263 251 239 228 217 206 195 185 175 165 156 147 138 130 122 115 108 101  95  89  84  79  74  70  66  63  59  57  54  52  50  48  47  45  44  44  43  43  43  43  44  44  45  46  47  48  49  50  52  53  55  56  58  59  61
349 361 372 383 394 404 413 422 431 439 446 453 459 464 468 472 475 477 478 479 478 477 475 472 469 464 459 453 447 439 432 423 414 405 395 384 373 362 351 339 328 316 304 292 280 268 256 244 233 221 210 199 189 179 169 159 150 142 133 125 118 111 104  98  92  86  81  77  72  68  65  61  58  56  53  51  49  48  46  45  45  44  44  44  44  44  45  45  46  47  48  49  51  52  54  55  57  58  60  62
355 367 378 389 400 410 420 429 438 446 453 460 466 471 476 479 482 485 486 486 486 485 483 480 476 472 466 460 454 446 438 430 421 411 401 390 379 368 357 345 333 321 309 297 284 272 260 248 237 225 214 203 192 182 172 163 153 145 136 128 121 113 107 100  94  89  84  79  75  70  67  63  60  57  55  53  51  49  48  47  46  45  45  45  45  45  46  46  47  48  49  50  52  53  55  56  58  60  61  63
359 371 383 394 405 415 425 434 443 451 459 466 472 477 482 485 488 490 492 492 492 491 488 486 482 477 472 466 459 452 444 435 426 416 406 395 384 373 361 349 337 325 313 300 288 276 264 252 240 228 217 206 195 185 175 165 156 147 139 131 123 116 109 103  97  92  86  82  77  73  69  66  63  60  57  55  53  51  50  48  48  47  46  46  46  47  47  48  48  49  51  52  53  55  56  58  60  61  63  65
363 375 386 397 408 419 429 438 447 455 463 470 476 481 486 490 493 495 496 496 496 495 493 490 486 482 476 470 463 456 448 439 430 420 410 399 388 376 364 353 340 328 316 303 291 279 266 254 243 231 220 208 198 187 177 168 158 150 141 133 126 119 112 106 100  94  89  84  80  76  72  68  65  62  60  57  55  53  52  51  50  49  48  48  48  48  49  49  50  51  52  54  55  57  58  60  62  63  65  67
365 376 388 400 410 421 431 440 449 458 465 472 478 484 488 492 495 497 499 499 499 497 495 492 489 484 479 473 466 458 450 441 432 422 412 401 390 378 367 355 342 330 318 305 293 280 268 256 244 233 221 210 200 189 179 170 161 152 144 136 128 121 115 108 103  97  92  87  83  79  75  71  68  65  63  60  58  56  55  53  52  51  51  50  50  51  51  52  52  53  55  56  57  59  60  62  64  66  68  70
365 377 389 400 411 422 432 441 450 458 466 473 479 485 489 493 496 498 500 500 500 498 496 493 490 485 480 474 467 459 451 442 433 423 413 402 391 379 367 355 343 331 319 306 294 281 269 257 245 234 223 212 201 191 181 171 162 154 146 138 131 124 117 111 106 100  95  91  86  82  78  75  72  69  66  63  61  59  58  56  55  54  54  53  53  53  54  54  55  56  57  59  60  62  63  65  67  69  71  73
365 377 388 400 410 421 431 440 449 458 465 472 478 484 488 492 495 497 499 499 499 498 495 493 489 484 479 473 466 459 450 442 432 422 412 401 390 379 367 355 343 331 318 306 294 281 269 257 246 234 223 212 202 192 182 173 164 156 148 140 133 126 120 114 109 104  99  93  90  96  82  79  76  73  70  67  65  63  61  60  59  58  57  56  56  56  57  57  58  59  60  62  63  65  66  68  70  72  74  76
363 375 386 397 408 419 429 438 447 455 463 470 476 481 486 490 493 495 496 497 496 495 493 490 486 482 477 470 464 456 448 439 430 420 410 399 388 377 365 354 341 329 317 305 293 281 269 257 245 234 223 212 202 192 183 174 165 157 149 142 135 129 123 117 112 106 102  97  94  90  87  83  80  77  74  72  69  67  65  64  62  61  61  60  60  60  60  61  62  63  64  65  67  68  70  72  74  76  78  80
359 371 383 394 405 415 425 434 443 451 459 466 472 477 482 486 488 491 492 492 492 491 489 486 482 478 473 467 460 452 444 436 427 417 407 396 385 374 363 351 339 327 315 303 291 279 267 255 244 233 222 212 202 192 183 174 166 158 151 144 138 132 126 121 116 110 107 103  99  95  91  88  85  82  79  76  74  72  70  68  67  66  65  64  64  64  64  65  65  66  68  69  71  72  74  76  78  80  82  84
355 367 378 389 400 410 420 429 438 446 453 460 466 471 476 480 483 485 486 487 486 485 483 480 477 472 467 461 454 447 439 431 422 412 402 392 381 370 359 347 335 323 312 300 288 276 265 253 242 231 221 211 201 192 183 175 167 160 153 146 140 134 129 123 119 114 111 107 103 100  96  93  90  87  84  82  79  77  75  73  72  70  69  69  68  68  69  69  70  71  72  73  75  77  78  80  82  85  87  89
350 361 372 383 394 404 413 423 431 439 446 453 459 464 469 472 475 477 479 479 479 478 476 473 469 465 460 454 448 440 433 424 415 406 396 386 375 365 353 342 331 319 307 296 284 273 261 250 240 229 219 209 200 191 183 175 168 161 154 148 143 137 131 127 124 120 116 112 109 105 102  99  96  93  90  87  85  82  80  78  77  76  74  74  73  73  73  74  74  75  77  78  79  81  83  85  87  89  92  94
343 354 365 376 386 396 406 415 423 431 438 444 450 455 460 464 466 468 470 470 470 469 467 464 461 456 451 446 439 432 425 417 408 399 389 379 369 358 347 336 325 314 302 291 280 269 258 247 237 226 217 207 199 190 182 175 168 162 156 150 145 140 135 132 128 124 121 118 114 111 108 105 102  99  96  94  91  89  86  84  83  81  80  79  79  78  78  79  79  80  81  83  84  86  88  90  92  94  97  99
335 346 357 367 378 387 397 405 414 421 428 435 440 445 450 453 456 458 459 460 460 458 457 454 450 446 442 436 430 423 416 408 399 390 381 371 361 351 340 329 318 307 296 285 274 264 253 243 233 223 214 205 197 189 181 175 168 162 157 152 147 142 138 136 132 129 126 123 120 117 114 112 109 106 103 100  97  95  93  90  89  87  86  85  84  84  84  84  85  86  87  88  90  91  93  95  97 100 102 104
326 337 348 358 368 377 386 395 403 410 417 423 429 434 438 442 444 446 448 448 448 447 445 442 439 435 430 425 419 412 405 397 389 380 371 362 352 342 332 321 311 300 289 279 268 258 248 238 229 219 211 202 194 187 180 174 168 163 158 154 150 145 143 140 137 134 132 129 126 124 121 118 116 113 110 107 104 102  99  97  95  93  92  91  90  90  90  90  90  91  92  94  95  97  99 101 103 105 107 110
317 327 338 348 357 366 375 383 391 398 405 411 417 421 426 429 432 434 435 435 435 434 432 430 427 423 418 413 407 401 394 386 378 370 361 352 342 333 323 313 302 292 282 272 262 252 242 233 224 215 207 199 192 185 179 173 168 163 159 156 151 148 147 144 142 140 137 135 133 131 128 126 123 120 117 114 112 109 106 104 102 100  98  97  96  96  96  96  96  97  98  99 101 103 105 107 109 111 113 115
306 317 327 336 345 354 363 371 378 386 392 398 403 408 412 415 418 420 421 421 421 420 418 416 413 409 405 400 394 388 381 374 366 358 350 341 332 323 313 303 293 284 274 264 255 245 236 227 219 210 203 196 189 183 177 172 168 164 160 156 154 152 150 148 147 145 143 142 140 138 135 133 130 128 125 122 119 116 114 111 109 107 105 104 103 102 102 102 102 103 104 105 107 109 110 112 115 117 119 121
295 305 315 324 333 342 350 358 365 372 378 384 389 393 397 400 403 405 406 406 406 405 404 401 398 395 391 386 380 375 368 361 354 346 338 329 321 312 303 293 284 275 265 256 247 238 229 221 213 205 198 192 186 180 175 171 167 164 161 158 157 155 154 153 152 150 149 148 146 145 143 140 138 135 133 130 127 124 121 118 116 114 112 110 109 109 108 108 109 109 110 111 113 115 116 119 121 123 125 127
283 293 302 311 320 328 336 343 351 357 363 369 374 378 382 385 387 389 390 391 390 390 388 386 383 380 376 371 366 360 354 347 340 333 325 317 309 300 292 283 274 265 256 247 239 230 222 214 207 200 194 188 182 178 173 170 167 164 161 159 159 158 158 157 156 156 155 154 153 152 150 148 146 143 140 137 134 131 129 126 123 121 119 117 116 115 115 115 115 116 117 118 119 121 123 125 127 129 131 133
271 280 289 298 306 314 322 329 336 342 348 353 358 362 365 368 371 373 374 374 374 373 372 370 367 364 360 356 351 345 340 333 327 319 312 304 296 288 280 272 263 255 247 238 230 222 215 208 201 195 189 183 179 175 171 168 166 164 162 162 161 161 161 161 161 161 161 160 160 159 157 155 153 151 148 145 142 139 136 133 131 128 126 124 123 122 121 121 122 122 123 124 126 127 129 131 133 135 137 139
259 267 276 284 292 299 307 314 320 326 332 337 341 345 349 352 354 356 357 357 357 356 355 353 351 347 344 340 335 330 324 319 312 305 299 291 284 276 268 260 253 245 237 229 222 214 207 201 195 189 184 179 175 172 169 166 165 164 162 163 163 164 164 165 166 166 166 166 166 165 164 163 161 158 156 153 150 147 144 141 138 135 133 131 130 129 128 128 128 129 130 131 132 134 135 137 139 141 144 146
245 254 262 270 277 285 291 298 304 310 315 320 324 328 332 334 337 338 339 340 340 339 338 336 334 331 327 323 319 314 309 303 298 291 285 278 271 264 256 249 242 234 227 220 213 206 200 194 188 183 178 174 171 168 166 165 164 162 162 164 165 166 167 168 170 171 172 172 172 172 171 170 168 166 163 160 157 154 151 148 145 143 140 138 137 136 135 135 135 135 136 137 139 140 142 144 146 148 150 152
232 240 248 255 262 269 276 282 288 294 299 303 307 311 314 317 319 321 322 322 322 321 320 319 316 314 311 307 303 298 294 288 283 277 271 264 258 251 244 237 230 224 217 210 204 198 192 187 182 177 173 170 167 165 163 163 161 162 163 165 166 168 170 172 174 175 176 177 178 178 177 176 175 172 170 167 164 161 158 155 152 150 147 145 144 143 142 142 142 142 143 144 145 147 148 150 152 154 156 158
219 226 234 241 248 254 260 266 272 277 282 286 290 294 297 299 301 303 304 304 304 304 303 301 299 297 294 290 287 282 278 273 268 262 257 251 244 238 232 226 219 213 207 201 195 189 184 179 175 171 168 165 163 162 161 160 160 162 163 165 167 170 172 175 177 179 181 182 183 183 183 182 181 179 177 174 171 168 165 162 159 157 154 152 151 150 149 148 148 149 149 151 152 153 155 157 158 160 162 164
206 213 219 226 233 239 245 250 256 261 265 269 273 276 279 282 283 285 286 286 286 286 285 284 282 280 277 274 270 266 262 258 253 248 242 237 231 226 220 214 208 202 197 191 186 181 176 172 168 165 163 160 159 158 158 158 158 161 163 165 168 171 174 177 180 182 185 186 188 188 188 188 187 185 183 180 178 175 172 169 166 163 161 159 158 156 156 155 155 155 156 157 158 160 161 163 165 167 168 170
192 199 205 212 218 224 229 234 239 244 248 252 256 259 262 264 266 267 268 269 269 268 268 266 265 263 260 257 254 251 247 242 238 233 229 224 218 213 208 202 197 192 187 182 177 173 169 165 162 159 157 156 155 155 155 156 156 160 162 165 168 172 175 179 182 185 188 190 192 193 193 193 192 190 189 186 184 181 178 175 172 170 168 166 164 163 162 162 162 162 163 164 165 166 168 169 171 173 175 176
179 185 191 197 203 209 214 219 223 228 232 236 239 242 244 247 248 250 251 251 251 251 250 249 248 246 244 241 238 235 231 228 224 219 215 210 206 201 196 191 186 182 177 173 169 165 161 158 156 154 152 151 151 151 152 152 155 158 161 165 169 173 177 180 184 188 191 193 195 196 197 197 196 195 194 192 189 187 184 181 179 176 174 172 171 169 169 168 168 169 169 170 171 173 174 176 177 179 181 182
166 172 178 183 189 194 199 203 208 212 216 219 222 225 228 230 231 233 234 234 234 234 233 233 231 230 228 225 223 220 216 213 209 206 202 197 193 189 185 180 176 172 168 164 160 157 154 152 150 148 147 147 147 148 148 150 154 157 160 164 168 173 177 181 186 189 193 196 198 199 200 201 200 199 198 196 194 192 189 187 184 182 180 178 177 176 175 175 175 175 176 177 178 179 180 182 183 185 187 188
154 159 164 169 174 179 184 188 192 196 200 203 206 209 211 213 215 216 217 217 218 217 217 216 215 214 212 210 207 205 202 199 196 192 189 185 181 177 174 170 166 162 159 156 153 150 147 145 144 143 142 142 143 144 145 149 152 155 159 163 168 173 177 182 186 191 194 197 200 202 203 204 204 203 202 200 199 196 194 192 190 188 186 184 183 182 181 181 181 181 182 183 184 185 187 188 190 191 192 194
141 146 151 156 161 165 170 174 177 181 184 187 190 193 195 197 198 200 201 201 201 201 201 200 199 198 197 195 193 190 188 185 182 179 176 173 170 166 163 160 156 153 150 148 145 143 141 139 138 138 138 138 139 141 142 146 150 153 158 162 167 172 177 182 187 191 195 199 202 204 205 206 207 206 205 204 203 201 199 197 195 193 191 190 189 188 187 187 187 188 188 189 190 191 193 194 195 197 198 199
129 134 139 143 147 152 156 159 163 166 170 172 175 177 180 181 183 184 185 186 186 186 186 185 184 183 182 180 179 177 175 172 170 167 164 162 159 156 153 150 147 145 142 140 138 136 135 134 133 133 134 135 136 138 140 144 148 152 156 161 166 172 177 182 187 192 196 200 203 205 207 208 209 209 208 207 206 205 203 201 199 198 196 195 194 194 193 193 193 194 194 195 196 197 199 200 201 202 203 204
118 122 127 131 135 139 142 146 149 152 155 158 160 163 165 166 168 169 170 171 171 171 171 171 170 169 168 167 165 164 162 160 158 155 153 151 148 146 144 141 139 137 135 133 132 130 129 129 129 129 130 131 132 134 137 142 146 150 155 160 165 171 176 182 187 192 196 200 203 206 208 210 211 211 211 210 209 208 207 205 204 203 201 200 200 199 199 199 199 200 200 201 202 203 204 206 207 208 209 209
107 111 115 119 123 126 130 133 136 139 142 144 147 149 151 152 154 155 156 156 157 157 157 157 156 156 155 154 153 151 150 148 146 144 143 141 139 137 135 133 131 129 128 127 125 125 124 124 124 125 126 128 129 133 136 140 144 149 154 159 164 170 176 181 186 191 196 200 204 207 209 211 212 213 213 213 212 211 210 209 208 207 206 205 205 205 204 205 205 206 206 207 208 209 210 211 212 213 214 214
 97 100 104 108 111 114 118 121 124 126 129 131 133 135 137 139 140 141 142 143 143 144 144 144 144 143 142 142 141 140 138 137 136 134 133 131 130 128 127 125 124 123 122 121 120 120 120 120 121 122 123 124 127 131 134 138 143 147 152 158 163 169 175 180 186 191 196 200 204 207 210 212 213 214 215 215 215 214 214 213 212 211 211 210 210 210 210 210 211 211 212 213 214 214 215 216 217 218 218 219
 87  90  94  97 100 103 106 109 112 114 117 119 121 123 125 126 127 129 129 130 131 131 132 132 131 131 131 130 130 129 128 127 126 125 124 122 121 120 119 118 117 116 116 115 115 115 116 116 117 119 120 122 126 129 133 137 141 146 151 157 163 168 174 180 185 191 195 200 204 207 210 212 214 216 216 217 217 217 217 216 216 215 215 215 215 215 215 215 216 217 217 218 219 220 221 221 222 223 223 223
 78  81  84  87  90  93  95  98 101 103 105 107 109 111 113 114 115 117 118 118 119 120 120 120 120 120 120 120 119 119 118 117 117 116 115 114 114 113 112 112 111 111 121 111 111 111 112 112 114 115 118 121 124 128 132 136 140 145 151 156 162 168 174 179 185 190 195 200 204 207 210 213 215 217 218 219 219 220 220 220 220 219 219 219 220 220 220 221 221 222 223 223 224 225 226 226 227 227 227 227
 69  72  75  78  80  83  85  88  90  92  94  96  98 100 102 103 104 105 107 107 108 109 109 110 110 110 110 110 110 109 109 109 108 108 108 107 107 107 106 106 116 106 106 107 107 108 109 110 113 115 117 120 123 127 131 135 140 145 150 156 162 168 173 179 185 190 195 200 204 208 211 214 216 218 220 221 222 222 223 223 223 223 224 224 224 225 225 226 226 227 228 228 229 230 230 231 231 231 231 231
 61  64  66  69  71  74  76  78  80  83  85  86  88  90  91  93  94  95  96  97  98  99  99 100 100 101 101 101 101 101 101 101 101 101 101 101 101 101 101 101 102 102 103 103 104 106 106 108 111 113 116 119 123 126 131 135 140 145 150 156 162 168 173 179 185 190 195 200 204 208 212 215 217 219 221 223 224 225 226 226 227 227 228 228 229 229 230 230 231 232 232 233 234 234 235 235 235 235 235 234
 54  56  58  61  63  65  67  70  72  73  75  77  79  80  82  83  85  86  87  88  89  90  90  91  92  92  92  93  93  94  94  94  94  95  95  95  96  96  96  97  98  99 100 101 101 103 105 108 110 113 116 119 123 127 131 135 140 146 151 157 162 168 174 179 185 190 196 200 205 209 212 216 219 221 223 225 226 228 229 230 230 231 232 232 233 234 234 235 236 237 237 238 238 239 239 239 239 239 238 238
 47  49  51  53  55  57  59  61  63  65  67  69  70  72  73  75  76  77  78  79  80  81  82  83  84  84  85  86  86  87  87  88  88  89  90  90  91  92  93  94  95  96  97  98  99 102 105 107 110 112 116 119 123 127 132 136 141 146 152 157 163 169 175 180 186 191 196 201 206 210 214 217 220 223 225 227 229 230 232 233 234 235 236 237 237 238 239 240 240 241 242 242 242 243 243 243 242 242 241 240
 40  42  44  46  48  50  52  54  56  58  59  61  62  64  65  67  68  69  71  72  73  74  75  76  77  78  78  79  80  81  82  82  83  84  85  86  87  88  90  91  92  94  95  96  99 102 104 107 110 113 116 120 124 128 133 138 143 148 153 159 165 170 176 182 187 192 198 202 207 211 215 219 222 225 227 230 232 233 235 236 238 239 240 241 242 243 243 244 245 245 246 246 246 246 246 246 245 245 244 243
 35  37  38  40  42  44  46  47  49  51  52  54  55  57  58  60  61  62  64  65  66  67  68  69  70  72  73  74  75  76  77  78  79  80  81  83  84  86  87  89  90  91  93  97  99 102 104 107 110 114 118 121 126 130 135 140 145 150 155 161 166 172 178 183 189 194 199 204 209 213 217 221 224 227 230 232 235 237 238 240 241 243 244 245 246 247 247 248 249 249 250 250 250 250 249 249 248 247 246 245
 29  31  33  35  36  38  40  41  43  45  46  48  49  51  52  53  55  56  58  59  60  61  63  64  65  66  68  69  70  71  73  74  75  77  78  80  82  84  85  87  88  92  94  97  99 102 105 108 112 115 119 123 128 132 137 142 147 152 158 163 169 174 180 186 191 196 201 206 211 215 219 223 227 230 233 235 238 240 242 243 245 246 248 249 250 251 251 252 253 253 253 253 253 253 252 252 251 250 248 247
 25  26  28  30  31  33  34  36  38  39  41  42  44  45  47  48  49  51  52  54  55  56  58  59  60  62  63  65  66  68  69  71  73  74  76  78  80  82  84  87  88  92  94  97 100 103 107 110 114 118 122 126 130 135 140 145 150 155 161 166 172 177 183 188 194 199 204 209 214 218 222 226 230 233 236 239 241 243 245 247 249 250 252 253 254 255 255 256 256 256 257 256 256 256 255 254 253 251 250 248
 21  22  24  25  27  28  30  31  33  34  36  37  39  40  42  43  45  46  48  49  50  52  54  55  57  58  60  61  63  65  67  69  71  73  75  77  79  82  84  87  88  92  95  98 101 105 108 112 116 120 124 129 133 138 143 148 153 159 164 170 175 181 186 192 197 202 207 212 217 221 225 229 233 236 239 242 245 247 249 251 253 254 255 256 257 258 259 259 260 260 260 259 259 258 257 256 254 253 251 249
 17  18  20  21  23  24  26  27  28  30  31  33  34  36  37  39  40  42  44  45  47  48  50  52  53  55  57  59  61  63  65  67  69  71  74  76  79  81  84  87  89  93  96 100 103 107 111 115 119 123 128 132 137 142 147 152 157 163 168 173 179 184 190 195 201 206 211 216 220 225 229 233 236 240 243 246 248 250 253 255 256 258 259 260 261 262 262 263 263 263 262 262 261 260 259 257 256 254 252 249
 14  15  16  18  19  21  22  23  25  26  28  29  31  32  34  35  37  39  40  42  44  45  47  49  51  53  55  57  59  61  64  66  68  71  74  76  79  82  85  88  90  95  98 102 106 110 114 118 122 127 131 136 141 146 151 156 161 167 172 178 183 189 194 199 205 210 215 219 224 228 232 236 240 243 246 249 252 254 256 258 260 261 263 264 264 265 265 265 265 265 265 264 263 262 260 259 257 255 252 250
 11  12  13  15  16  17  19  20  22  23  25  26  28  29  31  33  34  36  38  39  41  43  45  47  49  51  53  56  58  60  63  66  68  71  74  77  80  83  86  90  93  97 101 105 109 113 117 121 126 131 135 140 145 150 155 161 166 171 177 182 188 193 199 204 209 214 219 224 228 232 236 240 244 247 250 253 256 258 260 262 263 265 266 267 267 268 268 268 268 267 267 266 264 263 261 259 257 255 252 249
  8  10  11  12  14  15  16  18  19  21  22  24  25  27  28  30  32  34  36  37  39  41  44  46  48  50  53  55  58  60  63  66  69  72  75  78  81  85  88  92  96 100 104 108 112 116 121 125 130 135 140 145 150 155 160 166 171 176 182 187 193 198 203 209 214 219 223 228 232 237 241 244 248 251 254 257 259 262 264 265 267 268 269 270 270 271 271 270 270 269 268 267 266 264 262 260 257 255 252 249
  6   8   9  10  11  13  14  16  17  18  20  22  23  25  27  28  30  32  34  36  38  40  43  45  47  50  52  55  58  61  63  66  70  73  76  80  83  87  91  95  99 103 107 111 116 120 125 130 135 140 145 150 155 160 166 171 176 182 187 193 198 203 208 214 219 223 228 233 237 241 245 249 252 255 258 261 263 265 267 269 270 271 272 273 273 273 273 272 272 271 270 268 266 264 262 260 257 254 251 248
  5   6   7   8  10  11  12  14  15  17  18  20  22  23  25  27  29  31  33  35  37  40  42  45  47  50  53  55  58  61  65  68  71  75  78  82  86  90  94  98 102 106 111 115 120 125 130 134 139 145 150 155 160 166 171 176 182 187 193 198 203 209 214 219 224 228 233 237 242 246 249 253 256 259 262 265 267 269 271 272 273 274 275 275 275 275 275 274 273 272 270 269 267 265 262 259 256 253 250 246
  3   5   6   7   8  10  11  13  14  16  17  19  21  23  24  26  28  31  33  35  37  40  42  45  48  50  53  56  60  63  66  70  73  77  81  84  88  93  97 101 106 110 115 120 124 129 134 139 145 150 155 160 166 171 177 182 188 193 198 204 209 214 219 224 229 234 238 242 246 250 254 257 260 263 266 268 270 272 274 275 276 277 277 277 277 277 276 275 274 273 271 269 267 264 261 259 255 252 248 244
  2   4   5   6   7   9  10  12  13  15  17  18  20  22  24  26  28  30  33  35  38  40  43  46  49  52  55  58  61  65  68  72  76  79  83  88  92  96 101 105 110 114 119 124 129 134 139 145 150 155 161 166 172 177 183 188 193 199 204 209 215 220 225 230 234 239 243 247 251 255 258 262 265 267 270 272 274 275 277 278 279 279 279 279 279 278 277 276 275 273 271 269 266 264 261 257 254 250 246 242
  2   3   4   5   7   8  10  11  13  14  16  18  20  22  24  26  28  31  33  36  38  41  44  47  50  53  56  60  63  67  71  74  78  82  87  91  95 100 105 109 114 119 124 129 134 140 145 150 156 161 166 172 177 183 188 194 199 205 210 215 220 225 230 235 240 244 248 252 256 259 263 266 269 271 273 275 277 278 280 280 281 281 281 281 280 279 278 277 275 273 271 268 265 262 259 256 252 248 244 240
  1   2   4   5   6   8   9  11  13  14  16  18  20  22  24  27  29  31  34  37  39  42  45  48  52  55  58  62  66  70  73  77  82  86  90  95  99 104 109 114 119 124 129 134 140 145 150 156 161 167 172 178 183 189 195 200 205 211 216 221 226 231 236 240 245 249 253 257 260 264 267 270 272 275 277 278 280 281 282 283 283 283 283 282 281 280 278 277 275 272 270 267 264 261 257 254 250 246 241 237
  1   2   4   5   6   8   9  11  13  15  17  19  21  23  25  28  30  33  35  38  41  44  47  50  54  57  61  65  69  73  77  81  85  90  94  99 104 109 114 119 124 129 134 140 145 151 156 162 167 173 178 184 190 195 201 206 211 217 222 227 232 237 241 246 250 254 258 261 265 268 271 274 276 278 280 281 282 283 284 284 284 284 284 283 282 280 278 276 274 272 269 266 262 259 255 251 247 243 238 233
  1   2   4   5   7   8  10  12  13  15  17  19  22  24  26  29  31  34  37  40  43  46  49  53  56  60  64  68  72  76  80  85  89  94  98 103 108 113 118 124 129 134 140 145 151 156 162 168 173 179 185 190 196 201 207 212 217 223 228 233 237 242 247 251 255 259 262 266 269 272 275 277 279 281 283 284 285 285 286 286 286 285 284 283 282 280 278 276 273 270 267 264 260 257 253 248 244 240 235 230
  1   3   4   5   7   9  10  12  14  16  18  20  23  25  28  30  33  36  39  42  45  48  52  56  59  63  67  71  75  80  84  89  93  98 103 108 113 118 134 139 134 140 145 151 157 162 168 174 179 185 191 196 202 207 213 218 223 228 233 238 243 247 252 256 260 263 267 270 273 276 278 280 282 284 285 286 287 287 287 287 286 286 284 283 281 279 277 274 272 269 265 262 258 254 250 245 241 236 231 226
  2   3   5   6   8   9  11  13  15  17  19  22  24  27  29  32  35  38  41  44  48  51  55  59  62  66  71  75  79  84  88  93  98 103 108 113 118 123 129 134 140 146 151 157 163 168 174 180 185 191 197 202 208 213 219 224 229 234 239 244 248 253 257 261 264 268 271 274 277 279 281 283 285 286 287 288 288 288 288 288 287 286 284 282 280 278 276 273 270 266 263 259 255 251 246 242 237 232 227 222
  2   4   5   7   9  10  12  14  16  19  21  23  26  29  31  34  37  40  44  47  50  54  58  62  66  70  74  79  83  88  93  97 102 108 113 118 123 129 134 140 146 151 157 163 169 174 180 186 192 197 203 208 214 219 225 230 235 240 244 249 253 257 261 265 269 272 275 278 280 282 284 286 287 288 289 289 289 289 289 288 287 285 284 282 279 277 274 271 268 264 260 256 252 247 243 238 233 228 223 217
  3   5   6   8  10  12  14  16  18  20  23  25  28  31  34  37  40  43  46  50  54  57  61  65  70  74  78  83  88  92  97 102 107 113 118 123 129 134 140 146 151 157 163 169 175 180 186 192 198 203 209 214 220 225 230 235 240 245 250 254 258 262 266 269 273 276 278 281 283 285 287 288 289 290 290 290 290 290 289 288 286 285 283 280 278 275 272 268 265 261 257 253 248 244 239 234 229 224 218 213
  4   6   7   9  11  13  15  17  20  22  25  27  30  33  36  39  42  46  49  53  57  61  65  69  73  78  83  87  92  97 102 107 112 118 123 129 134 140 146 151 157 163 169 175 181 186 192 198 204 209 215 220 226 231 236 241 246 250 254 259 263 266 270 273 276 279 282 284 286 287 289 290 290 291 291 291 290 290 288 287 285 283 281 278 276 273 269 266 262 258 254 249 244 240 235 229 224 219 213 208
  5   7   9  11  13  15  17  19  22  24  27  30  33  36  39  42  45  49  53  57  60  65  69  73  78  82  87  92  97 102 107 112 118 123 129 134 140 146 152 157 163 169 175 181 187 192 198 204 210 215 221 226 231 236 241 246 251 255 259 263 267 270 274 277 280 282 284 286 288 289 290 291 291 292 291 291 290 289 288 286 284 282 279 276 273 270 266 262 258 254 250 245 240 235 230 225 219 214 208 202
  7   8  10  12  14  17  19  21  24  26  29  32  35  38  42  45  49  52  56  60  64  68  73  77  82  87  92  97 102 107 112 118 123 129 134 140 146 152 157 163 169 175 181 187 193 198 204 210 215 221 226 231 237 241 246 251 255 260 264 267 271 274 277 280 283 285 287 288 290 291 292 292 292 292 291 291 290 288 286 284 282 280 277 274 270 267 263 259 255 250 245 241 236 230 225 220 214 209 203 197
  8  10  12  14  16  18  21  23  26  29  32  35  38  41  45  48  52  56  60  64  68  73  77  82  86  91  96 101 107 112 117 123 128 134 140 146 151 157 163 169 175 181 187 193 198 204 210 215 221 226 232 237 242 246 251 256 260 264 268 271 274 278 280 283 285 287 289 290 291 292 292 292 292 292 291 290 289 287 285 283 280 277 274 271 267 263 259 255 250 246 241 236 231 225 220 215 209 203 197 192
 10  12  14  16  18  21  23  26  29  31  35  38  41  44  48  52  56  60  64  68  72  77  81  86  91  96 101 106 112 117 123 128 134 140 146 151 157 163 169 175 181 187 193 198 204 210 216 221 226 232 237 242 247 251 256 260 264 268 271 275 278 280 283 285 287 289 290 291 292 292 293 292 292 291 290 289 287 285 283 280 277 274 271 267 263 259 255 251 246 241 236 231 226 220 215 209 203 198 192 186
 11  13  16  18  20  23  26  28  31  34  37  41  44  48  51  55  59  63  68  72  77  81  86  91  96 101 106 112 117 123 128 134 140 145 151 157 163 169 175 181 187 193 198 204 210 215 221 226 232 237 242 247 251 256 260 264 268 271 275 278 280 283 285 287 289 290 291 292 293 293 293 292 291 290 289 287 285 283 280 277 274 271 267 264 259 255 251 246 241 236 231 226 220 215 209 203 198 192 186 180
 13  15  18  20  23  25  28  31  34  37  40  44  47  51  55  59  63  67  72  76  81  86  91  96 101 106 111 117 122 128 134 139 145 151 157 163 169 175 181 187 192 198 204 210 215 221 226 231 237 242 246 251 256 260 264 268 271 274 278 280 283 285 287 289 290 291 292 292 293 292 292 291 290 289 287 285 283 280 277 274 271 267 263 259 255 251 246 241 236 231 226 220 215 209 203 198 192 186 180 174
 15  18  20  22  25  28  31  34  37  40  44  47  51  55  59  63  67  72  76  81  85  90  95 100 106 111 116 122 128 133 139 145 151 157 163 168 174 180 186 192 198 204 209 215 221 226 231 236 241 246 251 255 259 264 267 271 274 277 280 283 285 287 289 290 291 292 292 292 292 292 291 290 288 287 285 282 280 277 274 271 267 263 259 255 250 246 241 236 231 225 220 214 209 203 197 192 186 180 174 168
 17  20  22  25  28  31  34  37  40  43  47  51  55  58  63  67  71  76  80  85  90  95 100 105 111 116 122 127 133 139 145 150 156 162 168 174 180 186 192 198 203 209 215 220 226 231 236 241 246 250 255 259 263 267 271 274 277 280 282 284 286 288 289 291 291 292 292 292 291 290 289 288 286 284 282 280 277 274 270 267 263 259 255 250 245 241 236 230 225 220 214 209 203 197 191 185 179 173 168 162
 20  22  25  27  30  33  36  40  43  47  50  54  58  62  67  71  75  80  85  90  95 100 105 110 116 121 127 133 138 144 150 156 162 168 174 180 185 191 197 203 209 214 220 225 230 235 240 245 250 254 259 263 266 270 273 276 279 282 284 286 288 289 290 291 291 291 291 291 290 289 287 286 284 282 279 276 273 270 266 262 258 254 250 245 240 235 230 225 219 214 208 202 197 191 185 179 173 167 161 155
 22  24  27  30  33  36  40  43  46  50  54  58  62  66  71  75  80  84  89  94  99 105 110 115 121 127 132 138 144 150 155 161 167 173 179 185 191 197 202 208 214 219 224 230 235 240 245 249 254 258 262 266 269 273 276 278 281 283 285 287 288 289 290 290 291 290 290 289 288 287 285 283 281 278 276 272 269 266 262 258 253 249 244 240 235 229 224 219 213 208 202 196 190 185 179 173 167 161 155 149
 24  27  30  33  36  39  43  46  50  54  58  62  66  70  75  79  84  89  94  99 104 110 115 120 126 132 137 143 149 155 161 167 173 178 184 190 196 202 207 213 218 224 229 234 239 244 248 253 257 261 265 268 272 275 278 280 282 284 286 287 288 289 290 290 290 289 288 287 286 284 282 280 278 275 272 268 265 261 257 253 248 244 239 234 229 224 218 213 207 201 196 190 184 178 172 166 160 154 149 143
 27  30  33  36  39  42  46  50  53  57  61  66  70  74  79  84  89  94  99 104 109 114 120 125 131 137 143 148 154 160 166 172 178 184 189 195 201 207 212 218 223 228 233 238 243 248 252 256 260 264 268 271 274 277 279 281 283 285 286 287 288 289 289 289 288 287 286 285 283 281 279 277 274 271 267 264 260 256 252 247 243 238 233 228 223 217 212 206 201 195 189 183 177 172 166 160 154 148 142 137
 29  32  36  39  42  46  49  53  57  61  65  70  74  79  83  88  93  98 103 109 114 119 125 131 136 142 148 154 159 165 171 177 183 189 194 200 206 211 217 222 227 232 237 242 247 251 255 259 263 266 270 273 276 278 280 282 284 285 286 287 287 288 287 287 286 285 284 282 280 278 275 273 270 266 263 259 255 251 246 242 237 232 227 222 216 211 205 200 194 188 183 177 171 165 159 153 147 142 136 130
 32  35  38  42  45  49  53  57  61  65  69  74  78  83  88  93  98 103 108 113 119 124 130 135 141 147 153 159 164 170 176 182 188 193 199 205 210 216 221 226 231 236 241 245 250 254 258 262 265 268 271 274 277 279 281 283 284 285 286 286 286 286 286 285 284 283 281 279 277 274 271 268 265 262 258 254 250 245 241 236 231 226 221 215 210 205 199 193 187 182 176 170 164 158 153 147 141 135 130 124
 35  38  42  45  49  52  56  60  64  69  73  78  82  87  92  97 102 107 113 118 124 129 135 140 146 152 158 163 169 175 181 187 192 198 204 209 214 220 225 230 235 240 244 248 253 257 260 264 267 270 273 275 278 279 281 282 284 284 285 285 285 284 283 282 281 279 278 275 273 270 267 264 260 257 253 248 244 239 235 230 225 220 214 209 203 198 192 187 181 175 169 163 158 152 146 140 135 129 123 118
 38  41  45  48  52  56  60  64  68  73  77  82  86  91  96 101 107 112 117 123 128 134 140 145 151 157 163 168 174 180 186 191 197 202 208 213 219 224 229 234 238 243 247 251 255 259 262 266 269 271 274 276 278 280 281 282 283 283 283 283 283 282 281 280 278 276 274 271 269 266 262 259 255 251 247 243 238 233 229 224 218 213 208 202 197 191 185 180 174 168 162 157 151 145 139 134 128 123 117 112
 41  44  48  52  55  59  63  68  72  77  81  86  91  96 101 106 111 117 122 127 133 139 144 150 156 161 167 173 179 184 190 196 201 207 212 217 222 227 232 237 241 246 250 254 257 261 264 267 270 272 274 276 278 279 280 281 281 282 281 281 280 279 278 276 274 272 270 267 264 261 257 254 250 245 241 237 232 227 222 217 212 206 201 196 190 184 179 173 167 161 156 150 144 139 133 127 122 116 111 106
 44  47  51  55  59  63  67  71  76  80  85  90  95 100 105 110 116 121 127 132 138 143 149 155 160 166 172 177 183 189 194 200 205 210 216 221 226 230 235 240 244 248 252 256 259 262 265 268 270 272 274 276 277 278 279 280 280 280 279 278 277 276 274 272 270 268 265 262 259 256 252 248 244 240 235 230 226 221 216 210 205 200 194 189 183 177 172 166 160 155 149 143 138 132 126 121 116 110 105 100
 47  51  54  58  62  67  71  75  80  84  89  94  99 104 109 115 120 126 131 137 142 148 153 159 165 170 176 182 187 193 198 204 209 214 219 224 229 233 238 242 246 250 254 257 260 263 266 268 270 272 274 275 276 277 278 278 278 277 276 275 274 272 270 268 266 263 260 257 254 250 246 242 238 233 229 224 219 214 209 204 198 193 187 182 176 170 165 159 153 148 142 136 131 125 120 115 109 104  99  94
 50  54  58  62  66  70  75  79  84  88  93  98 103 109 114 119 124 130 135 141 147 152 158 163 169 175 180 186 191 197 202 207 212 217 222 227 232 236 240 244 248 252 255 258 261 264 266 268 270 272 273 274 275 275 276 275 275 274 273 272 270 268 266 264 261 258 255 252 248 244 240 236 232 227 222 217 212 207 202 197 191 186 180 175 169 163 158 152 147 141 135 130 124 119 114 108 103  98  93  88
 53  57  61  65  69  74  78  83  88  92  97 102 108 113 118 123 129 134 140 145 151 156 162 168 173 179 184 190 195 200 206 211 216 220 225 230 234 238 242 246 250 253 256 259 262 264 266 268 270 271 272 273 273 273 273 273 272 271 270 268 266 264 262 259 256 253 250 246 242 238 234 230 225 220 216 211 205 200 195 190 184 179 173 168 162 156 151 145 140 134 129 123 118 113 107 102  97  92  88  83
 57  60  65  69  73  78  82  87  92  96 101 106 112 117 122 128 133 138 144 149 155 161 166 172 177 183 188 193 199 204 209 214 218 223 228 232 236 240 244 247 251 254 257 259 262 264 266 267 269 270 270 271 271 271 270 270 269 267 266 264 262 259 257 254 251 247 244 240 236 232 228 223 218 214 209 204 198 193 188 183 177 172 166 161 155 149 144 138 133 128 122 117 112 106 101  96  92  87  82  78
 60  64  68  72  77  81  86  91  95 100 105 111 116 121 126 132 137 143 148 153 159 164 170 175 181 186 191 197 202 207 212 216 221 225 230 234 238 242 245 248 251 254 257 259 261 263 265 266 267 268 268 268 268 268 267 266 265 263 261 259 257 254 251 248 245 242 238 234 230 225 221 216 212 207 202 197 191 186 181 175 170 164 159 153 148 142 137 132 126 121 116 110 105 100  95  91  86  81  77  72
 63  67  71  76  80  85  90  94  99 104 109 114 120 125 130 136 141 146 152 157 163 168 174 179 184 189 195 200 205 209 214 219 223 227 232 235 239 243 246 249 252 254 257 259 261 262 263 264 265 266 266 266 265 264 263 262 261 259 257 254 252 249 246 243 239 235 232 227 223 219 214 209 205 200 195 189 184 179 174 168 163 157 152 146 141 136 130 125 120 114 109 104  99  94  90  85  80  76  71  67